VERSION .7
FIELDS x y z rgb
SIZE 4 4 4 4
TYPE F F F F
WIDTH 756
HEIGHT 1
VIEWPOINT 0 0 0 1 0 0 0
POINTS 756
DATA ascii
-454.87200927734375 -110.27200317382812 1723.0001220703125 4000000
-456.1920166015625 -89.85599517822266 1728.0001220703125 4000000
-452.3599853515625 -67.07999420166016 1720.0001220703125 4000000
-453.14898681640625 -46.520999908447266 1723.0001220703125 4000000
-454.4639892578125 -25.920000076293945 1728.0001220703125 4000000
-454.989990234375 -5.190000057220459 1730.0001220703125 4000000
-453.93798828125 15.534000396728516 1726.0001220703125 4000000
-453.14898681640625 37.906002044677734 1723.0001220703125 4000000
-454.4639892578125 58.75200271606445 1728.0001220703125 4000000
-456.1920166015625 79.48799896240234 1728.0001220703125 4000000
-456.45599365234375 100.2820053100586 1729.0001220703125 4000000
-455.9280090332031 122.61700439453125 1727.0001220703125 4000000
-454.87200927734375 143.00900268554688 1723.0001220703125 4000000
-455.3999938964844 163.875 1725.0001220703125 4000000
-457.2480163574219 185.32400512695312 1732.0001220703125 4000000
-458.45001220703125 207.59999084472656 1730.0001220703125 4000000
-457.9200134277344 228.09600830078125 1728.0001220703125 4000000
-458.1850280761719 250.7050018310547 1729.0001220703125 4000000
-460.3050231933594 272.7090148925781 1737.0001220703125 4000000
-459.6479797363281 293.760009765625 1728.0001220703125 4000000
-457.7859802246094 313.2220153808594 1721.0001220703125 4000000
-433.34100341796875 316.4850158691406 1623.0001220703125 4000000
-432.8070068359375 335.5469970703125 1621.0001220703125 4000000
-433.8919982910156 356.17999267578125 1619.0001220703125 4000000
-512.6840209960938 445.72900390625 1913.0001220703125 4000000
-512.9830322265625 469.12200927734375 1907.0001220703125 4000000
-431.72998046875 434.9280090332031 1599.0001220703125 4000000
-415.79998779296875 438.8999938964844 1540.0001220703125 4000000
-407.85498046875 448.489990234375 1505.0001220703125 4000000
-327.5249938964844 435.906005859375 1191 4000000
-328.16400146484375 451.82000732421875 1189 4000000
-328.2450256347656 466.8900146484375 1185 4000000
-328.3179931640625 481.8479919433594 1181 4000000
-329.4989929199219 499.56298828125 1181 4000000
-513.9119873046875 -477.2039794921875 1932.0001220703125 4000000
-514.7099609375 -452.7900085449219 1935.0001220703125 4000000
-428.2400207519531 -337.7440185546875 1616.0001220703125 4000000
-427.9750061035156 -316.53997802734375 1615.0001220703125 4000000
-431.11199951171875 -300.4720153808594 1633.0001220703125 4000000
-455.3999938964844 -294.9750061035156 1725.0001220703125 4000000
-453.93798828125 -272.7079772949219 1726.0001220703125 4000000
-453.14898681640625 -251.55801391601562 1723.0001220703125 4000000
-453.67498779296875 -231.15000915527344 1725.0001220703125 4000000
-450.6399841308594 -208.1199951171875 1720.0001220703125 4000000
-451.9499816894531 -188.02499389648438 1725.0001220703125 4000000
-452.4739685058594 -165.79200744628906 1727.0001220703125 4000000
-450.9019775390625 -144.56399536132812 1721.0001220703125 4000000
-452.21197509765625 -124.27200317382812 1726.0001220703125 4000000
-452.7359924316406 -103.68000030517578 1728.0001220703125 4000000
-450.74700927734375 -81.16899871826172 1727.0001220703125 4000000
-450.74700927734375 -60.445003509521484 1727.0001220703125 4000000
-450.2250061035156 -39.67499923706055 1725.0001220703125 4000000
-451.0080261230469 -19.007999420166016 1728.0001220703125 4000000
-451.0080261230469 1.7280000448226929 1728.0001220703125 4000000
-450.48602294921875 24.163999557495117 1726.0001220703125 4000000
-450.74700927734375 44.902000427246094 1727.0001220703125 4000000
-451.0080261230469 65.66399383544922 1728.0001220703125 4000000
-451.0080261230469 86.4000015258789 1728.0001220703125 4000000
-454.0459899902344 107.44599914550781 1733.0001220703125 4000000
-451.1639709472656 129.15000915527344 1722.0001220703125 4000000
-451.1639709472656 149.81399536132812 1722.0001220703125 4000000
-451.68798828125 170.67599487304688 1724.0001220703125 4000000
-454.0459899902344 192.36300659179688 1733.0001220703125 4000000
-453.4119873046875 213.7760009765625 1724.0001220703125 4000000
-453.4119873046875 234.46400451660156 1724.0001220703125 4000000
-454.72698974609375 257.6210021972656 1729.0001220703125 4000000
-455.77899169921875 279.01300048828125 1733.0001220703125 4000000
-456.1920166015625 300.6719970703125 1728.0001220703125 4000000
-449.0639953613281 316.3860168457031 1701.0001220703125 4000000
-430.6250305175781 323.375 1625.0001220703125 4000000
-429.83001708984375 343.8639831542969 1622.0001220703125 4000000
-431.7179870605469 363.552001953125 1623.0001220703125 4000000
-509.9219665527344 454.3290100097656 1917.0001220703125 4000000
-503.5619812011719 471.5000305175781 1886.0001220703125 4000000
-421.5639953613281 434.14801025390625 1573.0001220703125 4000000
-408.70001220703125 440.7249755859375 1525.0001220703125 4000000
-401.61700439453125 452.3789978027344 1493.0001220703125 4000000
-324.8700256347656 441.489990234375 1190 4000000
-325.5119934082031 457.3800048828125 1188 4000000
-324.5 470.82000732421875 1180 4000000
-326.50799560546875 488.5790100097656 1183 4000000
-511.1850280761719 -493.8240051269531 1929.0001220703125 4000000
-510.0480041503906 -469.47601318359375 1932.0001220703125 4000000
-511.63201904296875 -445.7400207519531 1938.0001220703125 4000000
-427.11199951171875 -352.4079895019531 1624.0001220703125 4000000
-424.7449951171875 -331.07501220703125 1615.0001220703125 4000000
-423.9159851074219 -310.656005859375 1618.0001220703125 4000000
-443.3039855957031 -302.86798095703125 1692.0001220703125 4000000
-450.2250061035156 -288.07501220703125 1725.0001220703125 4000000
-451.0080261230469 -266.11199951171875 1728.0001220703125 4000000
-448.6590270996094 -244.09800720214844 1719.0001220703125 4000000
-449.9640197753906 -222.39598083496094 1724.0001220703125 4000000
-447.4599914550781 -201.3570098876953 1721.0001220703125 4000000
-448.239990234375 -181.02000427246094 1724.0001220703125 4000000
-448.239990234375 -158.60800170898438 1724.0001220703125 4000000
-448.239990234375 -137.9199981689453 1724.0001220703125 4000000
-445.99798583984375 -117.09600067138672 1722.0001220703125 4000000
-448.3289794921875 -96.93600463867188 1731.0001220703125 4000000
-447.2929992675781 -74.26100158691406 1727.0001220703125 4000000
-448.3289794921875 -53.6609992980957 1731.0001220703125 4000000
-447.81097412109375 -32.85099792480469 1729.0001220703125 4000000
-448.3289794921875 -12.117000579833984 1731.0001220703125 4000000
-445.7389831542969 8.604999542236328 1721.0001220703125 4000000
-447.552001953125 31.104001998901367 1728.0001220703125 4000000
-448.3289794921875 51.93000030517578 1731.0001220703125 4000000
-447.81097412109375 72.61799621582031 1729.0001220703125 4000000
-447.2929992675781 93.25800323486328 1727.0001220703125 4000000
-448.3289794921875 114.24600219726562 1731.0001220703125 4000000
-449.0199890136719 136.43299865722656 1727.0001220703125 4000000
-449.5400085449219 157.33900451660156 1729.0001220703125 4000000
-450.05999755859375 178.29299926757812 1731.0001220703125 4000000
-448.760009765625 200.21600341796875 1726.0001220703125 4000000
-449.79998779296875 221.44000244140625 1730.0001220703125 4000000
-450.48602294921875 241.63999938964844 1726.0001220703125 4000000
-451.791015625 264.8429870605469 1731.0001220703125 4000000
-451.791015625 285.6150207519531 1731.0001220703125 4000000
-452.4739685058594 307.406005859375 1727.0001220703125 4000000
-431.2519836425781 312.7400207519531 1646.0001220703125 4000000
-426.8489990234375 329.468994140625 1623.0001220703125 4000000
-426.322998046875 350.135986328125 1621.0001220703125 4000000
-502.3919982910156 458.6230163574219 1903.0001220703125 4000000
-458.1850280761719 439.166015625 1729.0001220703125 4000000
-428.2400207519531 431.47198486328125 1616.0001220703125 4000000
-414.6939697265625 436.52001953125 1559.0001220703125 4000000
-403.52197265625 445.99798583984375 1517.0001220703125 4000000
-396.2279968261719 455.5880126953125 1484.0001220703125 4000000
-323.72998046875 432.8390197753906 1199 4000000
-322.489990234375 446.25 1190 4000000
-322.864013671875 461.74298095703125 1187 4000000
-321.86700439453125 475.13702392578125 1179 4000000
-324.4159851074219 494.9120178222656 1184 4000000
-506.44598388671875 -485.1829833984375 1933.0001220703125 4000000
-506.44598388671875 -461.98699951171875 1933.0001220703125 4000000
-504.25201416015625 -436.63201904296875 1932.0001220703125 4000000
-422.82000732421875 -345.05999755859375 1620.0001220703125 4000000
-420.67999267578125 -323.6000061035156 1618.0001220703125 4000000
-419.8999938964844 -303.6199951171875 1615.0001220703125 4000000
-447.7200012207031 -301.3499755859375 1722.0001220703125 4000000
-446.7749938964844 -279.4499816894531 1725.0001220703125 4000000
-447.03399658203125 -258.9000244140625 1726.0001220703125 4000000
-446.2569885253906 -237.7740020751953 1723.0001220703125 4000000
-445.3079833984375 -215.75001525878906 1726.0001220703125 4000000
-444.7919616699219 -194.81199645996094 1724.0001220703125 4000000
-445.3079833984375 -172.59999084472656 1726.0001220703125 4000000
-443.7599792480469 -151.36000061035156 1720.0001220703125 4000000
-442.8110046386719 -130.947998046875 1723.0001220703125 4000000
-444.3529968261719 -110.65599822998047 1729.0001220703125 4000000
-443.8390197753906 -88.07699584960938 1727.0001220703125 4000000
-444.09600830078125 -67.39199829101562 1728.0001220703125 4000000
-444.09600830078125 -46.65599822998047 1728.0001220703125 4000000
-445.1240234375 -25.979999542236328 1732.0001220703125 4000000
-444.09600830078125 -5.184000015258789 1728.0001220703125 4000000
-443.0680236816406 15.516000747680664 1724.0001220703125 4000000
-443.8390197753906 37.99399948120117 1727.0001220703125 4000000
-445.3810119628906 58.922000885009766 1733.0001220703125 4000000
-443.8390197753906 79.44200134277344 1727.0001220703125 4000000
-444.86700439453125 100.39800262451172 1731.0001220703125 4000000
-445.3810119628906 121.31000518798828 1733.0001220703125 4000000
-445.823974609375 143.4239959716797 1728.0001220703125 4000000
-446.3399658203125 164.35000610351562 1730.0001220703125 4000000
-447.3719787597656 185.53799438476562 1734.0001220703125 4000000
-444.5339660644531 206.75999450683594 1723.0001220703125 4000000
-446.59796142578125 228.49200439453125 1731.0001220703125 4000000
-448.0699768066406 249.12001037597656 1730.0001220703125 4000000
-450.1419982910156 272.8659973144531 1738.0001220703125 4000000
-448.3289794921875 292.53900146484375 1731.0001220703125 4000000
-447.7200012207031 313.40399169921875 1722.0001220703125 4000000
-423.2799987792969 317.4599914550781 1628.0001220703125 4000000
-424.125 336.375 1625.0001220703125 4000000
-423.60302734375 357.05999755859375 1623.0001220703125 4000000
-498.323974609375 443.1659851074219 1902.0001220703125 4000000
-481.031982421875 451.656005859375 1836.0001220703125 4000000
-444.7330017089844 437.968994140625 1691.0001220703125 4000000
-420.27398681640625 434.656005859375 1598.0001220703125 4000000
-407.0880126953125 439.469970703125 1542.0001220703125 4000000
-397.32000732421875 448.489990234375 1505.0001220703125 4000000
-319.7239990234375 436.63800048828125 1193 4000000
-320.1100158691406 452.20001220703125 1190 4000000
-320.489990234375 467.6780090332031 1187 4000000
-320.5929870605469 482.66400146484375 1183 4000000
-502.5799865722656 -477.45098876953125 1933.0001220703125 4000000
-501.6829833984375 -453.2580261230469 1937.0001220703125 4000000
-419.0619812011719 -338.1620178222656 1618.0001220703125 4000000
-417.70196533203125 -317.323974609375 1619.0001220703125 4000000
-420.7979736328125 -298.4729919433594 1631.0001220703125 4000000
-443.8390197753906 -295.3170166015625 1727.0001220703125 4000000
-443.5820007324219 -272.7079772949219 1726.0001220703125 4000000
-442.55401611328125 -251.41200256347656 1722.0001220703125 4000000
-442.11199951171875 -229.6909942626953 1727.0001220703125 4000000
-441.343994140625 -208.60398864746094 1724.0001220703125 4000000
-440.8320007324219 -187.697998046875 1722.0001220703125 4000000
-442.3680114746094 -165.88800048828125 1728.0001220703125 4000000
-438.85498046875 -144.56399536132812 1721.0001220703125 4000000
-441.1499938964844 -124.56000518798828 1730.0001220703125 4000000
-440.8949890136719 -103.73999786376953 1729.0001220703125 4000000
-440.1299743652344 -81.12200164794922 1726.0001220703125 4000000
-441.4049987792969 -60.58500289916992 1731.0001220703125 4000000
-439.875 -39.67499923706055 1725.0001220703125 4000000
-440.8949890136719 -19.019001007080078 1729.0001220703125 4000000
-439.364990234375 1.7230000495910645 1723.0001220703125 4000000
-439.875 24.149999618530273 1725.0001220703125 4000000
-440.1299743652344 44.875999450683594 1726.0001220703125 4000000
-441.91497802734375 65.85399627685547 1733.0001220703125 4000000
-440.1299743652344 86.29999542236328 1726.0001220703125 4000000
-441.91497802734375 107.44599914550781 1733.0001220703125 4000000
-442.16998291015625 130.0500030517578 1734.0001220703125 4000000
-441.4049987792969 150.5970001220703 1731.0001220703125 4000000
-443.135986328125 171.36898803710938 1731.0001220703125 4000000
-443.3919982910156 192.2519989013672 1732.0001220703125 4000000
-441.343994140625 213.7760009765625 1724.0001220703125 4000000
-442.8800048828125 235.27999877929688 1730.0001220703125 4000000
-442.8110046386719 255.00401306152344 1723.0001220703125 4000000
-445.3810119628906 279.01300048828125 1733.0001220703125 4000000
-444.86700439453125 299.4629821777344 1731.0001220703125 4000000
-438.85797119140625 316.3860168457031 1701.0001220703125 4000000
-420.02398681640625 323.9720153808594 1628.0001220703125 4000000
-420.35699462890625 342.4530029296875 1623.0001220703125 4000000
-421.1340026855469 364.2239990234375 1626.0001220703125 4000000
-493.2200012207031 449.5889892578125 1897.0001220703125 4000000
-459.1600036621094 441.5000305175781 1766.0001220703125 4000000
-434.56500244140625 437.8949890136719 1665.0001220703125 4000000
-412.1190185546875 435.80401611328125 1579.0001220703125 4000000
-400.5979919433594 441.8809814453125 1529.0001220703125 4000000
-393.447998046875 451.7919921875 1496.0001220703125 4000000
-316.8059997558594 440.66998291015625 1191 4000000
-317.4629821777344 456.5760192871094 1189 4000000
-317.31201171875 471.23199462890625 1184 4000000
-318.2270202636719 487.39599609375 1183 4000000
-498.7139587402344 -494.8479919433594 1933.0001220703125 4000000
-498.1979675292969 -469.2330017089844 1931.0001220703125 4000000
-498.3230285644531 -445.9700012207031 1939.0001220703125 4000000
-417.625 -352.625 1625.0001220703125 4000000
-413.9519958496094 -329.86798095703125 1617.0001220703125 4000000
-414.7200012207031 -311.0400085449219 1620.0001220703125 4000000
-432.7349853515625 -303.76300048828125 1697.0001220703125 4000000
-440.3849792480469 -288.40899658203125 1727.0001220703125 4000000
-440.3849792480469 -265.9579772949219 1727.0001220703125 4000000
-437.134033203125 -244.3820037841797 1721.0001220703125 4000000
-438.65802001953125 -222.78298950195312 1727.0001220703125 4000000
-437.8960266113281 -201.7080078125 1724.0001220703125 4000000
-438.4040222167969 -181.22999572753906 1726.0001220703125 4000000
-436.9309997558594 -158.88400268554688 1727.0001220703125 4000000
-435.666015625 -137.75999450683594 1722.0001220703125 4000000
-437.43701171875 -117.5719985961914 1729.0001220703125 4000000
-437.18402099609375 -96.76799774169922 1728.0001220703125 4000000
-437.43701171875 -74.34700012207031 1729.0001220703125 4000000
-437.69000244140625 -53.630001068115234 1730.0001220703125 4000000
-437.43701171875 -32.85099792480469 1729.0001220703125 4000000
-436.9309997558594 -12.08899974822998 1727.0001220703125 4000000
-435.41302490234375 8.604999542236328 1721.0001220703125 4000000
-437.43701171875 31.12200164794922 1729.0001220703125 4000000
-437.18402099609375 51.84000015258789 1728.0001220703125 4000000
-438.1960144042969 72.7439956665039 1732.0001220703125 4000000
-438.1960144042969 93.52799987792969 1732.0001220703125 4000000
-437.43701171875 114.11399841308594 1729.0001220703125 4000000
-439.46099853515625 137.22299194335938 1737.0001220703125 4000000
-436.9309997558594 157.15699768066406 1727.0001220703125 4000000
-440.1820373535156 178.49899291992188 1733.0001220703125 4000000
-439.4200134277344 198.9499969482422 1730.0001220703125 4000000
-439.4200134277344 221.44000244140625 1730.0001220703125 4000000
-437.64202880859375 241.22000122070312 1723.0001220703125 4000000
-440.6399841308594 264.3840026855469 1728.0001220703125 4000000
-441.91497802734375 285.94500732421875 1733.0001220703125 4000000
-441.4049987792969 308.1180114746094 1731.0001220703125 4000000
-421.3760070800781 312.7400207519531 1646.0001220703125 4000000
-416.2560119628906 330.0780029296875 1626.0001220703125 4000000
-417.11102294921875 350.5679931640625 1623.0001220703125 4000000
-473.4299621582031 442.2350158691406 1835.0001220703125 4000000
-446.8559875488281 439.9280090332031 1732.0001220703125 4000000
-421.3929748535156 434.40899658203125 1627.0001220703125 4000000
-403.5220031738281 436.2400207519531 1558.0001220703125 4000000
-395.4599914550781 445.6529846191406 1521.0001220703125 4000000
-388.1070251464844 456.5090026855469 1487.0001220703125 4000000
-316.3890075683594 434.28302001953125 1203 4000000
-314.1600036621094 446.25 1190 4000000
-315.08502197265625 462.52099609375 1189 4000000
-314.4119873046875 476.34600830078125 1182 4000000
-315.8609924316406 493.3110046386719 1183 4000000
-494.8479919433594 -485.1829833984375 1933.0001220703125 4000000
-493.93499755859375 -461.0059814453125 1937.0001220703125 4000000
-492.91497802734375 -434.92498779296875 1933.0001220703125 4000000
-410.21002197265625 -343.9950256347656 1615.0001220703125 4000000
-410.9720153808594 -323.6000061035156 1618.0001220703125 4000000
-411.22601318359375 -302.75299072265625 1619.0001220703125 4000000
-435.666015625 -301.3499755859375 1722.0001220703125 4000000
-436.9309997558594 -279.77398681640625 1727.0001220703125 4000000
-435.7080078125 -259.3500061035156 1729.0001220703125 4000000
-434.447998046875 -236.18798828125 1724.0001220703125 4000000
-434.9519958496094 -215.75001525878906 1726.0001220703125 4000000
-435.45599365234375 -195.26400756835938 1728.0001220703125 4000000
-433.7279968261719 -172.8000030517578 1728.0001220703125 4000000
-433.7279968261719 -152.06399536132812 1728.0001220703125 4000000
-433.2259826660156 -131.17599487304688 1726.0001220703125 4000000
-434.98297119140625 -110.91200256347656 1733.0001220703125 4000000
-433.7279968261719 -88.12799835205078 1728.0001220703125 4000000
-433.2259826660156 -67.31399536132812 1726.0001220703125 4000000
-433.7279968261719 -46.65599822998047 1728.0001220703125 4000000
-433.47698974609375 -25.904998779296875 1727.0001220703125 4000000
-433.47698974609375 -5.181000232696533 1727.0001220703125 4000000
-433.2259826660156 15.534000396728516 1726.0001220703125 4000000
-434.22998046875 38.060001373291016 1730.0001220703125 4000000
-433.47698974609375 58.71800231933594 1727.0001220703125 4000000
-434.73199462890625 79.67200469970703 1732.0001220703125 4000000
-435.2339782714844 100.57200622558594 1734.0001220703125 4000000
-434.22998046875 121.10000610351562 1730.0001220703125 4000000
-435.7359924316406 144.08799743652344 1736.0001220703125 4000000
-434.22998046875 164.35000610351562 1730.0001220703125 4000000
-436.9679870605469 185.53799438476562 1734.0001220703125 4000000
-435.45599365234375 205.63198852539062 1728.0001220703125 4000000
-436.2120056152344 228.49200439453125 1731.0001220703125 4000000
-434.9519958496094 248.54400634765625 1726.0001220703125 4000000
-439.46099853515625 272.7090148925781 1737.0001220703125 4000000
-438.4490051269531 292.87701416015625 1733.0001220703125 4000000
-436.1719970703125 313.76800537109375 1724.0001220703125 4000000
-413.51202392578125 315.8320007324219 1628.0001220703125 4000000
-413.0040283203125 336.5820007324219 1626.0001220703125 4000000
-414.1199951171875 357.2799987792969 1624.0001220703125 4000000
-457.47198486328125 437.81500244140625 1787.0001220703125 4000000
-433.66400146484375 437.0519714355469 1694.0001220703125 4000000
-411.97100830078125 434.4129943847656 1603.0001220703125 4000000
-396.0370178222656 437.6440124511719 1541.0001220703125 4000000
-389.5799865722656 449.9800109863281 1510.0001220703125 4000000
-312.56597900390625 435.44500732421875 1193 4000000
-311.7799987792969 451.010009765625 1190 4000000
-312.4440002441406 466.8840026855469 1188 4000000
-312.0480041503906 481.0740051269531 1182 4000000
-491.23602294921875 -477.6979675292969 1934.0001220703125 4000000
-490.0610046386719 -453.2580261230469 1937.0001220703125 4000000
-407.7359924316406 -336.54400634765625 1618.0001220703125 4000000
-408.239990234375 -317.5199890136719 1620.0001220703125 4000000
-410.3849792480469 -299.2049865722656 1635.0001220703125 4000000
-433.2259826660156 -295.1460266113281 1726.0001220703125 4000000
-433.47698974609375 -272.8659973144531 1727.0001220703125 4000000
-433.0000305175781 -252.87200927734375 1732.0001220703125 4000000
-431.5000305175781 -229.5579833984375 1726.0001220703125 4000000
-430.7500305175781 -208.48300170898438 1723.0001220703125 4000000
-429.7740173339844 -188.13400268554688 1726.0001220703125 4000000
-430.2720031738281 -165.88800048828125 1728.0001220703125 4000000
-429.7740173339844 -144.98399353027344 1726.0001220703125 4000000
-430.52099609375 -124.48800659179688 1729.0001220703125 4000000
-430.2720031738281 -103.68000030517578 1728.0001220703125 4000000
-430.2720031738281 -81.21600341796875 1728.0001220703125 4000000
-430.2720031738281 -60.480003356933594 1728.0001220703125 4000000
-430.52099609375 -39.76700210571289 1729.0001220703125 4000000
-430.52099609375 -19.019001007080078 1729.0001220703125 4000000
-428.54400634765625 1.7280000448226929 1728.0001220703125 4000000
-431.0190124511719 22.503000259399414 1731.0001220703125 4000000
-430.2720031738281 44.92799758911133 1728.0001220703125 4000000
-431.0190124511719 65.77799987792969 1731.0001220703125 4000000
-432.0150146484375 86.75 1735.0001220703125 4000000
-431.0190124511719 107.3219985961914 1731.0001220703125 4000000
-431.7660217285156 128.31600952148438 1734.0001220703125 4000000
-431.26800537109375 150.6840057373047 1732.0001220703125 4000000
-431.0190124511719 171.36898803710938 1731.0001220703125 4000000
-433.0000305175781 192.2519989013672 1732.0001220703125 4000000
-433.5000305175781 215.0159912109375 1734.0001220703125 4000000
-432.2500305175781 235.1439971923828 1729.0001220703125 4000000
-434.2500305175781 257.0760192871094 1737.0001220703125 4000000
-435.9869689941406 279.6570129394531 1737.0001220703125 4000000
-435.2339782714844 299.98199462890625 1734.0001220703125 4000000
-427.4529724121094 316.75799560546875 1703.0001220703125 4000000
-410.50799560546875 322.5419921875 1629.0001220703125 4000000
-409.7519836425781 343.08599853515625 1626.0001220703125 4000000
-411.3780212402344 364.2239990234375 1626.0001220703125 4000000
-461.7250061035156 432.5249938964844 1825.0001220703125 4000000
-446.27801513671875 439.2500305175781 1757.0001220703125 4000000
-421.6400146484375 436.5799865722656 1660.0001220703125 4000000
-403.91998291015625 437.18402099609375 1584.0001220703125 4000000
-390.65997314453125 442.74798583984375 1532.0001220703125 4000000
-382.97601318359375 451.7919921875 1496.0001220703125 4000000
-309.9200134277344 441.03997802734375 1192 4000000
-309.3999938964844 456.96002197265625 1190 4000000
-309.2850036621094 471.6300048828125 1185 4000000
-310.2079772949219 487.8079833984375 1184 4000000
-487.1159973144531 -492.91497802734375 1933.0001220703125 4000000
-486.1869812011719 -468.7539978027344 1937.0001220703125 4000000
-485.93597412109375 -445.2799987792969 1936.0001220703125 4000000
-404.5000305175781 -351.1059875488281 1618.0001220703125 4000000
-404.2500305175781 -329.86798095703125 1617.0001220703125 4000000
-403.1310119628906 -309.22900390625 1619.0001220703125 4000000
-422.05499267578125 -303.4049987792969 1695.0001220703125 4000000
-430.02301025390625 -286.6820068359375 1727.0001220703125 4000000
-429.5359802246094 -266.7279968261719 1732.0001220703125 4000000
-428.54400634765625 -243.6479949951172 1728.0001220703125 4000000
-429.0400085449219 -223.16998291015625 1730.0001220703125 4000000
-427.79998779296875 -201.82501220703125 1725.0001220703125 4000000
-426.0749816894531 -179.39999389648438 1725.0001220703125 4000000
-427.06298828125 -159.06800842285156 1729.0001220703125 4000000
-426.81597900390625 -138.239990234375 1728.0001220703125 4000000
-427.3099670410156 -117.63999938964844 1730.0001220703125 4000000
-426.3219909667969 -94.93000030517578 1726.0001220703125 4000000
-427.5569763183594 -74.43299865722656 1731.0001220703125 4000000
-425.3340148925781 -53.5989990234375 1729.0001220703125 4000000
-425.58001708984375 -32.869998931884766 1730.0001220703125 4000000
-425.3340148925781 -12.10300064086914 1729.0001220703125 4000000
-425.0880126953125 8.639999389648438 1728.0001220703125 4000000
-426.072021484375 31.176000595092773 1732.0001220703125 4000000
-425.3340148925781 51.869998931884766 1729.0001220703125 4000000
-427.8039855957031 72.7439956665039 1732.0001220703125 4000000
-429.0389709472656 93.7979965209961 1737.0001220703125 4000000
-427.5569763183594 114.24600219726562 1731.0001220703125 4000000
-428.7919921875 135.40798950195312 1736.0001220703125 4000000
-428.0509948730469 157.7030029296875 1733.0001220703125 4000000
-428.2979736328125 178.6020050048828 1734.0001220703125 4000000
-427.8039855957031 199.1800079345703 1732.0001220703125 4000000
-430.2799987792969 222.0800018310547 1735.0001220703125 4000000
-429.78399658203125 242.62001037597656 1733.0001220703125 4000000
-431.2720031738281 264.3280029296875 1739.0001220703125 4000000
-432.0150146484375 286.2749938964844 1735.0001220703125 4000000
-431.5169982910156 306.7409973144531 1733.0001220703125 4000000
-410.3520202636719 313.1199951171875 1648.0001220703125 4000000
-406.7500305175781 330.281005859375 1627.0001220703125 4000000
-406.5000305175781 349.5899963378906 1626.0001220703125 4000000
-412.8949890136719 375.05999755859375 1645.0001220703125 4000000
-451.79998779296875 433.79998779296875 1800.0001220703125 4000000
-435.45599365234375 438.9120178222656 1728.0001220703125 4000000
-410.760009765625 435.2099914550781 1630.0001220703125 4000000
-396.197998046875 438.4800109863281 1566.0001220703125 4000000
-385.572021484375 446.531982421875 1524.0001220703125 4000000
-376.4280090332031 453.49200439453125 1482.0001220703125 4000000
-308.6570129394531 432.3600158691406 1201 4000000
-307.2779846191406 445.4339904785156 1191 4000000
-307.0199890136719 461.719970703125 1190 4000000
-306.91497802734375 476.3699951171875 1185 4000000
-308.1000061035156 494.1449890136719 1185 4000000
-481.3170166015625 -485.1829833984375 1933.0001220703125 4000000
-482.56201171875 -461.2439880371094 1938.0001220703125 4000000
-479.3840026855469 -434.92498779296875 1933.0001220703125 4000000
-400.5199890136719 -342.3800048828125 1615.0001220703125 4000000
-401.2640075683594 -323.6000061035156 1618.0001220703125 4000000
-400.3869934082031 -303.1269836425781 1621.0001220703125 4000000
-424.8399963378906 -301 1720.0001220703125 4000000
-425.0880126953125 -279.9360046386719 1728.0001220703125 4000000
-427.3020324707031 -260.5500183105469 1737.0001220703125 4000000
-425.3340148925781 -236.87298583984375 1729.0001220703125 4000000
-424.8420104980469 -215.87501525878906 1727.0001220703125 4000000
-423.114990234375 -195.1510009765625 1727.0001220703125 4000000
-422.8699951171875 -172.59999084472656 1726.0001220703125 4000000
-424.0950012207031 -152.3280029296875 1731.0001220703125 4000000
-423.8500061035156 -131.47999572753906 1730.0001220703125 4000000
-424.3399963378906 -110.8479995727539 1732.0001220703125 4000000
-422.1199951171875 -88.22999572753906 1730.0001220703125 4000000
-422.1199951171875 -67.47000122070312 1730.0001220703125 4000000
-422.6080017089844 -46.763999938964844 1732.0001220703125 4000000
-422.3639831542969 -25.96500015258789 1731.0001220703125 4000000
-422.3639831542969 -5.193000316619873 1731.0001220703125 4000000
-422.1199951171875 15.570000648498535 1730.0001220703125 4000000
-423.0959777832031 38.14799880981445 1734.0001220703125 4000000
-421.6319885253906 58.75200271606445 1728.0001220703125 4000000
-423.0959777832031 79.76399993896484 1734.0001220703125 4000000
-425.56500244140625 100.74600219726562 1737.0001220703125 4000000
-425.80999755859375 121.66000366210938 1738.0001220703125 4000000
-425.32000732421875 144.08799743652344 1736.0001220703125 4000000
-425.07501220703125 164.82501220703125 1735.0001220703125 4000000
-425.80999755859375 185.96600341796875 1738.0001220703125 4000000
-425.32000732421875 206.58399963378906 1736.0001220703125 4000000
-426.8100280761719 229.02000427246094 1735.0001220703125 4000000
-427.0560302734375 249.9840087890625 1736.0001220703125 4000000
-427.5480041503906 272.8659973144531 1738.0001220703125 4000000
-428.2979736328125 293.0460205078125 1734.0001220703125 4000000
-426.5689697265625 314.3139953613281 1727.0001220703125 4000000
-402.6099853515625 316.2200012207031 1630.0001220703125 4000000
-403.7439880371094 336.9960021972656 1628.0001220703125 4000000
-403.24798583984375 356.093994140625 1626.0001220703125 4000000
-442.2239990234375 435.1199951171875 1776.0001220703125 4000000
-425.5000305175781 439.115966796875 1702.0001220703125 4000000
-401.7500305175781 435.49700927734375 1607.0001220703125 4000000
-389.04998779296875 440.20001220703125 1550.0001220703125 4000000
-379.260986328125 448.7669982910156 1511.0001220703125 4000000
-370.9440002441406 457.7920227050781 1472.0001220703125 4000000
-304.4700012207031 435.8100280761719 1194 4000000
-305.1520080566406 451.76800537109375 1192 4000000
-304.802001953125 466.0979919433594 1186 4000000
-304.031005859375 481.48101806640625 1183 4000000
-306.2459716796875 499.7270202636719 1187 4000000
-478.43896484375 -478.43896484375 1937.0001220703125 4000000
-478.9329833984375 -453.72601318359375 1939.0001220703125 4000000
-473.30401611328125 -425.2039794921875 1924.0001220703125 4000000
-397.7820129394531 -336.33599853515625 1617.0001220703125 4000000
-396.1650085449219 -316.9319763183594 1617.0001220703125 4000000
-400.57501220703125 -299.2049865722656 1635.0001220703125 4000000
-423.3600158691406 -293.760009765625 1728.0001220703125 4000000
-422.1199951171875 -273.3399963378906 1730.0001220703125 4000000
-424.31597900390625 -252.15499877929688 1739.0001220703125 4000000
-420.8999938964844 -229.42498779296875 1725.0001220703125 4000000
-420.8760070800781 -209.57199096679688 1732.0001220703125 4000000
-419.6610107421875 -186.51600646972656 1727.0001220703125 4000000
-419.6610107421875 -165.79200744628906 1727.0001220703125 4000000
-421.36199951171875 -145.656005859375 1734.0001220703125 4000000
-419.4179992675781 -124.27200317382812 1726.0001220703125 4000000
-418.9019775390625 -102.1290054321289 1731.0001220703125 4000000
-419.385986328125 -81.45100402832031 1733.0001220703125 4000000
-418.6600036621094 -60.55000305175781 1730.0001220703125 4000000
-419.8699951171875 -39.90500259399414 1735.0001220703125 4000000
-418.4179992675781 -19.019001007080078 1729.0001220703125 4000000
-419.8699951171875 1.7350000143051147 1735.0001220703125 4000000
-419.62799072265625 22.54199981689453 1734.0001220703125 4000000
-420.35400390625 45.1619987487793 1737.0001220703125 4000000
-419.62799072265625 65.89199829101562 1734.0001220703125 4000000
-419.385986328125 86.6500015258789 1733.0001220703125 4000000
-420.11199951171875 107.63199615478516 1736.0001220703125 4000000
-421.8479919433594 128.46400451660156 1736.0001220703125 4000000
-420.8760070800781 150.6840057373047 1732.0001220703125 4000000
-422.3340148925781 172.06199645996094 1738.0001220703125 4000000
-422.3340148925781 192.91799926757812 1738.0001220703125 4000000
-422.3340148925781 213.7740020751953 1738.0001220703125 4000000
-423.3399963378906 235.9600067138672 1735.0001220703125 4000000
-424.0719909667969 257.2239990234375 1738.0001220703125 4000000
-423.8280029296875 279.6570129394531 1737.0001220703125 4000000
-425.07501220703125 300.1549987792969 1735.0001220703125 4000000
-417.4800109863281 316.9440002441406 1704.0001220703125 4000000
-399.3500061035156 322.739990234375 1630.0001220703125 4000000
-400.7340087890625 343.7190246582031 1629.0001220703125 4000000
-400.7340087890625 364.89599609375 1629.0001220703125 4000000
-448.7989807128906 428.81201171875 1817.0001220703125 4000000
-433.23797607421875 436.7460021972656 1754.0001220703125 4000000
-412.6719970703125 435.9679870605469 1664.0001220703125 4000000
-393.0799865722656 435.875 1585.0001220703125 4000000
-382.2149963378906 442.08001708984375 1535.0001220703125 4000000
-372.5039978027344 451.7919921875 1496.0001220703125 4000000
-301.8290100097656 440.21697998046875 1193 4000000
-302.5140075683594 456.15301513671875 1191 4000000
-302.94000244140625 471.635986328125 1188 4000000
-302.42999267578125 488.6319885253906 1186 4000000
-474.32000732421875 -493.67999267578125 1936.0001220703125 4000000
-474.32000732421875 -468.5119934082031 1936.0001220703125 4000000
-472.62799072265625 -443.572998046875 1937.0001220703125 4000000
-396.0119934082031 -352.19097900390625 1623.0001220703125 4000000
-392.9309997558594 -329.86798095703125 1617.0001220703125 4000000
-393.4169921875 -309.22900390625 1619.0001220703125 4000000
-410.427001953125 -302.33099365234375 1689.0001220703125 4000000
-418.6600036621094 -287.17999267578125 1730.0001220703125 4000000
-420.5959777832031 -267.6519775390625 1738.0001220703125 4000000
-419.62799072265625 -244.49398803710938 1734.0001220703125 4000000
-415.2430114746094 -222.26698303222656 1723.0001220703125 4000000
-417.4120178222656 -202.64401245117188 1732.0001220703125 4000000
-416.447998046875 -179.7119903564453 1728.0001220703125 4000000
-416.2070007324219 -158.88400268554688 1727.0001220703125 4000000
-418.135009765625 -138.8000030517578 1735.0001220703125 4000000
-415.44000244140625 -117.70800018310547 1731.0001220703125 4000000
-415.44000244140625 -95.20500183105469 1731.0001220703125 4000000
-415.44000244140625 -74.43299865722656 1731.0001220703125 4000000
-416.3999938964844 -53.78499984741211 1735.0001220703125 4000000
-415.44000244140625 -32.888999938964844 1731.0001220703125 4000000
-414.9599914550781 -12.10300064086914 1729.0001220703125 4000000
-416.1600036621094 8.670000076293945 1734.0001220703125 4000000
-415.91998291015625 31.194000244140625 1733.0001220703125 4000000
-416.8799743652344 52.1099967956543 1737.0001220703125 4000000
-415.91998291015625 72.78600311279297 1733.0001220703125 4000000
-416.8799743652344 93.7979965209961 1737.0001220703125 4000000
-417.3599853515625 114.77400207519531 1739.0001220703125 4000000
-418.135009765625 135.3300018310547 1735.0001220703125 4000000
-418.135009765625 157.885009765625 1735.0001220703125 4000000
-418.3760070800781 178.80799865722656 1736.0001220703125 4000000
-418.61700439453125 199.7550048828125 1737.0001220703125 4000000
-418.3760070800781 222.20799255371094 1736.0001220703125 4000000
-421.5639953613281 243.8800048828125 1742.0001220703125 4000000
-420.5959777832031 264.1759948730469 1738.0001220703125 4000000
-420.5959777832031 286.77001953125 1738.0001220703125 4000000
-421.6050109863281 307.0950012207031 1735.0001220703125 4000000
-401.1929931640625 313.69000244140625 1651.0001220703125 4000000
-395.60400390625 328.8559875488281 1628.0001220703125 4000000
-396.9880065917969 349.80499267578125 1627.0001220703125 4000000
-400.1600036621094 373.9200134277344 1640.0001220703125 4000000
-439.7749938964844 432.5950012207031 1795.0001220703125 4000000
-423.8500061035156 439.4200134277344 1730.0001220703125 4000000
-402.7020263671875 437.0789794921875 1637.0001220703125 4000000
-385.72802734375 439.0400085449219 1568.0001220703125 4000000
-375.9339904785156 445.94598388671875 1522.0001220703125 4000000
-368.2769775390625 456.2460021972656 1491.0001220703125 4000000
-299.4429931640625 446.1820068359375 1193 4000000
-299.62799072265625 461.33197021484375 1189 4000000
-300.0580139160156 476.7720031738281 1186 4000000
-302.5140075683594 495.45599365234375 1191 4000000
-470.6910095214844 -486.1869812011719 1937.0001220703125 4000000
-468.7539978027344 -461.0059814453125 1937.0001220703125 4000000
-468.2699890136719 -435.375 1935.0001220703125 4000000
-392.03997802734375 -343.44000244140625 1620.0001220703125 4000000
-389.93798828125 -323.6000061035156 1618.0001220703125 4000000
-390.4200134277344 -302.94000244140625 1620.0001220703125 4000000
-412.79998779296875 -299.2799987792969 1720.0001220703125 4000000
-415.91998291015625 -280.7460021972656 1733.0001220703125 4000000
-417.1199951171875 -260.70001220703125 1738.0001220703125 4000000
-412.99200439453125 -236.73599243164062 1728.0001220703125 4000000
-414.18701171875 -216.62501525878906 1733.0001220703125 4000000
-414.4259948730469 -194.2080078125 1734.0001220703125 4000000
-413.2309875488281 -172.89999389648438 1729.0001220703125 4000000
-414.4259948730469 -152.5919952392578 1734.0001220703125 4000000
-411.26397705078125 -131.32798767089844 1728.0001220703125 4000000
-412.92999267578125 -111.04000091552734 1735.0001220703125 4000000
-412.4539794921875 -88.38299560546875 1733.0001220703125 4000000
-411.739990234375 -67.47000122070312 1730.0001220703125 4000000
-413.64398193359375 -46.92599868774414 1738.0001220703125 4000000
-412.4539794921875 -25.994998931884766 1733.0001220703125 4000000
-412.92999267578125 -5.205000400543213 1735.0001220703125 4000000
-413.1679992675781 15.624000549316406 1736.0001220703125 4000000
-413.4059753417969 38.2140007019043 1737.0001220703125 4000000
-413.1679992675781 59.02400207519531 1736.0001220703125 4000000
-412.4539794921875 79.71800231933594 1733.0001220703125 4000000
-414.1199951171875 100.92000579833984 1740.0001220703125 4000000
-414.3580017089844 121.87000274658203 1741.0001220703125 4000000
-415.3819885253906 142.5159912109375 1738.0001220703125 4000000
-414.18701171875 164.635009765625 1733.0001220703125 4000000
-415.14300537109375 185.85899353027344 1737.0001220703125 4000000
-415.3819885253906 206.82199096679688 1738.0001220703125 4000000
-414.6650085449219 229.02000427246094 1735.0001220703125 4000000
-417.8399963378906 250.70401000976562 1741.0001220703125 4000000
-416.8799743652344 270.97198486328125 1737.0001220703125 4000000
-416.8799743652344 293.5530090332031 1737.0001220703125 4000000
-416.447998046875 312.76800537109375 1728.0001220703125 4000000
-393.5530090332031 316.802001953125 1633.0001220703125 4000000
-392.3479919433594 336.9960021972656 1628.0001220703125 4000000
-393.9759826660156 356.531982421875 1628.0001220703125 4000000
-433.2690124511719 436.8349914550781 1783.0001220703125 4000000
-413.58599853515625 439.115966796875 1702.0001220703125 4000000
-393.3280029296875 436.85198974609375 1612.0001220703125 4000000
-378.68798828125 440.76800537109375 1552.0001220703125 4000000
-369.70501708984375 448.1729736328125 1509.0001220703125 4000000
-366.0480041503906 461.2799987792969 1488.0001220703125 4000000
-296.11199951171875 435.8100280761719 1194 4000000
-297.0570068359375 450.9540100097656 1193 4000000
-297 465.69598388671875 1188 4000000
-298.18798828125 483.5160217285156 1188 4000000
-466.57598876953125 -476.2560119628906 1936.0001220703125 4000000
-465.3599853515625 -451.7869873046875 1939.0001220703125 4000000
-461.7599792480469 -425.2039794921875 1924.0001220703125 4000000
-387.41900634765625 -337.1679992675781 1621.0001220703125 4000000
-386.7019958496094 -315.510009765625 1618.0001220703125 4000000
-388.4159851074219 -298.656005859375 1632.0001220703125 4000000
-411.739990234375 -294.1000061035156 1730.0001220703125 4000000
-412.92999267578125 -274.1300048828125 1735.0001220703125 4000000
-413.1679992675781 -251.72000122070312 1736.0001220703125 4000000
-408.5880126953125 -229.2919921875 1724.0001220703125 4000000
-410.24700927734375 -209.45098876953125 1731.0001220703125 4000000
-410.24700927734375 -186.947998046875 1731.0001220703125 4000000
-410.010009765625 -166.0800018310547 1730.0001220703125 4000000
-409.6960144042969 -145.82400512695312 1736.0001220703125 4000000
-407.8080139160156 -124.41600799560547 1728.0001220703125 4000000
-409.46002197265625 -102.36500549316406 1735.0001220703125 4000000
-408.75201416015625 -81.40399932861328 1732.0001220703125 4000000
-408.75201416015625 -60.62000274658203 1732.0001220703125 4000000
-409.2239990234375 -39.88199996948242 1734.0001220703125 4000000
-409.2239990234375 -19.073999404907227 1734.0001220703125 4000000
-410.4040222167969 1.7389999628067017 1739.0001220703125 4000000
-409.46002197265625 22.55500030517578 1735.0001220703125 4000000
-409.46002197265625 45.11000061035156 1735.0001220703125 4000000
-410.1679992675781 66.04399871826172 1738.0001220703125 4000000
-408.9880065917969 86.6500015258789 1733.0001220703125 4000000
-410.1679992675781 107.75599670410156 1738.0001220703125 4000000
-410.6400146484375 128.760009765625 1740.0001220703125 4000000
-408.9880065917969 150.77099609375 1733.0001220703125 4000000
-411.19500732421875 171.76499938964844 1735.0001220703125 4000000
-411.906005859375 192.91799926757812 1738.0001220703125 4000000
-412.14300537109375 213.89700317382812 1739.0001220703125 4000000
-412.3800048828125 236.63999938964844 1740.0001220703125 4000000
-414.5959777832031 257.8160095214844 1742.0001220703125 4000000
-413.8819885253906 278.239990234375 1739.0001220703125 4000000
-413.1679992675781 300.3280029296875 1736.0001220703125 4000000
-407.9729919433594 315.79498291015625 1707.0001220703125 4000000
-390.0480041503906 323.135986328125 1632.0001220703125 4000000
-389.0920104980469 343.50799560546875 1628.0001220703125 4000000
-390.7200012207031 363.04400634765625 1628.0001220703125 4000000
-435.3599853515625 428.10400390625 1814.0001220703125 4000000
-425.364990234375 439.4850158691406 1765.0001220703125 4000000
-402.9519958496094 438.06396484375 1672.0001220703125 4000000
-384.0539855957031 436.42498779296875 1587.0001220703125 4000000
-370.9859924316406 441.5040283203125 1533.0001220703125 4000000
-365.22900390625 452.4029846191406 1503.0001220703125 4000000
-293.2320251464844 439.8479919433594 1192 4000000
-294.6709899902344 456.91900634765625 1193 4000000
-295.6159973144531 473.2239990234375 1192 4000000
-463.1820068359375 -494.1899719238281 1938.0001220703125 4000000
-460.2919921875 -468.0279846191406 1934.0001220703125 4000000
-461.2439880371094 -443.802001953125 1938.0001220703125 4000000
-383.46600341796875 -330.0719909667969 1618.0001220703125 4000000
-383.94000244140625 -309.4200134277344 1620.0001220703125 4000000
-397.6600036621094 -301.614990234375 1685.0001220703125 4000000
-408.9880065917969 -287.6780090332031 1733.0001220703125 4000000
-410.8760070800781 -268.1139831542969 1741.0001220703125 4000000
-407.2550048828125 -244.35299682617188 1733.0001220703125 4000000
-405.8450012207031 -222.78298950195312 1727.0001220703125 4000000
-408.19500732421875 -201.49200439453125 1737.0001220703125 4000000
-406.7850036621094 -180.0240020751953 1731.0001220703125 4000000
-405.9900207519531 -159.62001037597656 1735.0001220703125 4000000
-405.5220031738281 -138.63999938964844 1733.0001220703125 4000000
-405.28802490234375 -117.7760009765625 1732.0001220703125 4000000
-405.7560119628906 -95.37000274658203 1734.0001220703125 4000000
-405.05401611328125 -74.43299865722656 1731.0001220703125 4000000
-406.926025390625 -53.909000396728516 1739.0001220703125 4000000
-405.28802490234375 -32.907997131347656 1732.0001220703125 4000000
-406.2239990234375 -12.152000427246094 1736.0001220703125 4000000
-406.926025390625 8.694999694824219 1739.0001220703125 4000000
-406.2239990234375 31.248001098632812 1736.0001220703125 4000000
-406.6920166015625 52.13999938964844 1738.0001220703125 4000000
-405.9900207519531 72.87000274658203 1735.0001220703125 4000000
-406.6920166015625 93.85199737548828 1738.0001220703125 4000000
-406.2239990234375 114.57600402832031 1736.0001220703125 4000000
-407.6280212402344 135.87599182128906 1742.0001220703125 4000000
-404.82000732421875 157.4300079345703 1730.0001220703125 4000000
-408.42999267578125 179.0139923095703 1738.0001220703125 4000000
-407.9599914550781 199.63999938964844 1736.0001220703125 4000000
-408.6650085449219 220.85301208496094 1739.0001220703125 4000000
-409.6050109863281 244.02000427246094 1743.0001220703125 4000000
-410.8760070800781 264.6319885253906 1741.0001220703125 4000000
-410.8760070800781 287.2650146484375 1741.0001220703125 4000000
-409.46002197265625 307.0950012207031 1735.0001220703125 4000000
-391.99798583984375 314.260009765625 1654.0001220703125 4000000
-386.30999755859375 329.2599792480469 1630.0001220703125 4000000
-385.83599853515625 350.0199890136719 1628.0001220703125 4000000
-389.6059875488281 373.2359924316406 1637.0001220703125 4000000
-429.35198974609375 432.9599914550781 1804.0001220703125 4000000
-414.6650085449219 438.95501708984375 1735.0001220703125 4000000
-392.677001953125 437.0379943847656 1643.0001220703125 4000000
-376.55999755859375 437.7510070800781 1569.0001220703125 4000000
-365.03997802734375 444.13201904296875 1521.0001220703125 4000000
-361.98199462890625 459.61199951171875 1502.0001220703125 4000000
-291.33599853515625 446.5559997558594 1194 4000000
-292.2850036621094 461.6910095214844 1193 4000000
-292.4940185546875 477.9779968261719 1189 4000000
-294.9179992675781 496.7039794921875 1194 4000000
-457.13201904296875 -484.2500305175781 1937.0001220703125 4000000
-456.8960266113281 -460.7679748535156 1936.0001220703125 4000000
-457.13201904296875 -435.8249816894531 1937.0001220703125 4000000
-381.1700134277344 -343.8639831542969 1622.0001220703125 4000000
-380.4649963378906 -322.1809997558594 1619.0001220703125 4000000
-379.08001708984375 -302.94000244140625 1620.0001220703125 4000000
-402.947998046875 -299.62799072265625 1722.0001220703125 4000000
-405.9900207519531 -281.07000732421875 1735.0001220703125 4000000
-404.2550048828125 -258.5149841308594 1735.0001220703125 4000000
-403.5559997558594 -237.28399658203125 1732.0001220703125 4000000
-402.6239929199219 -216.00001525878906 1728.0001220703125 4000000
-403.5559997558594 -193.9840087890625 1732.0001220703125 4000000
-402.52001953125 -173.5 1735.0001220703125 4000000
-402.52001953125 -152.6800079345703 1735.0001220703125 4000000
-401.5920104980469 -131.55599975585938 1731.0001220703125 4000000
-402.52001953125 -109.30500030517578 1735.0001220703125 4000000
-402.52001953125 -88.48500061035156 1735.0001220703125 4000000
-402.28802490234375 -67.6259994506836 1734.0001220703125 4000000
-402.52001953125 -46.845001220703125 1735.0001220703125 4000000
-402.52001953125 -26.024999618530273 1735.0001220703125 4000000
-403.21600341796875 -5.214000225067139 1738.0001220703125 4000000
-402.9840087890625 15.633000373840332 1737.0001220703125 4000000
-402.52001953125 38.17000198364258 1735.0001220703125 4000000
-402.0559997558594 58.922000885009766 1733.0001220703125 4000000
-402.75201416015625 79.85600280761719 1736.0001220703125 4000000
-403.6800231933594 100.92000579833984 1740.0001220703125 4000000
-402.9840087890625 121.59000396728516 1737.0001220703125 4000000
-403.21600341796875 142.5159912109375 1738.0001220703125 4000000
-401.3600158691406 164.35000610351562 1730.0001220703125 4000000
-405.6529846191406 186.28700256347656 1741.0001220703125 4000000
-404.72100830078125 206.70298767089844 1737.0001220703125 4000000
-404.9540100097656 227.67799377441406 1738.0001220703125 4000000
-405.6529846191406 250.70401000976562 1741.0001220703125 4000000
-407.1600036621094 271.44000244140625 1740.0001220703125 4000000
-406.926025390625 293.8910217285156 1739.0001220703125 4000000
-404.58599853515625 312.9490051269531 1729.0001220703125 4000000
